# .PCD v0.7 - Point Cloud Data file format
VERSION 0.7
FIELDS x y z rgb
SIZE 4 4 4 4
TYPE F F F U
COUNT 1 1 1 1
WIDTH 1123
HEIGHT 1
VIEWPOINT 0 0 0 1 0 0 0
POINTS 1123
DATA ascii
-0.29477739 -0.26891539 1.0140398 16776960
-0.29754567 -0.26775926 1.0140398 16776960
-0.28286749 -0.26620075 1.0101627 16776960
-0.28569409 -0.26519555 1.0101627 16776960
-0.28852069 -0.26419038 1.0101627 16776960
-0.28356394 -0.26815912 1.012326 16776960
-0.28639051 -0.26715392 1.012326 16776960
-0.28921711 -0.26614875 1.012326 16776960
-0.28426036 -0.27011746 1.0144893 16776960
-0.28708693 -0.26911229 1.0144893 16776960
-0.2760652 -0.2669448 1.0095695 16776960
-0.27319533 -0.26781872 1.0095695 16776960
-0.27032542 -0.26869264 1.0095695 16776960
-0.27665412 -0.26887876 1.011786 16776960
-0.27378425 -0.26975268 1.011786 16776960
-0.27091435 -0.2706266 1.011786 16776960
-0.27724305 -0.27081272 1.0140024 16776960
-0.27437317 -0.27168664 1.0140024 16776960
-0.26713893 -0.26883647 1.0085801 16776960
-0.26990619 -0.26767772 1.008561 16776960
-0.27272356 -0.26663652 1.008418 16776960
-0.26797843 -0.27080503 1.0106837 16776960
-0.27072716 -0.26960289 1.0107104 16776960
-0.27352604 -0.2685183 1.0106132 16776960
-0.26882336 -0.27278641 1.0127738 16776960
-0.27155361 -0.27154088 1.0128462 16776960
-0.401135 -0.25741082 1.014843 16776960
-0.40133128 -0.25441724 1.014843 16776960
-0.40152758 -0.25142366 1.014843 16776960
-0.40300497 -0.25753343 1.0171857 16776960
-0.40320125 -0.25453985 1.0171857 16776960
-0.40339756 -0.25154629 1.0171857 16776960
-0.40487492 -0.25765604 1.0195284 16776960
-0.40507123 -0.25466248 1.0195284 16776960
-0.39488357 -0.2574335 1.0094045 16776960
-0.39645955 -0.25488082 1.0093967 16776960
-0.39774403 -0.25214931 1.009694 16776960
-0.39666647 -0.25852695 1.011559 16776960
-0.3981719 -0.25593099 1.0116249 16776960
-0.39938584 -0.25315621 1.0119962 16776960
-0.39843914 -0.25961414 1.0137241 16776960
-0.39987403 -0.25697488 1.0138639 16776960
-0.3196685 -0.25684074 1.0090607 16776960
-0.32241088 -0.25805703 1.0090592 16776960
-0.32501593 -0.25958332 1.0086944 16776960
-0.31871247 -0.25899902 1.0109283 16776960
-0.32151762 -0.26007366 1.0110928 16776960
-0.3241854 -0.26145828 1.0108941 16776960
-0.31783649 -0.26097661 1.0130076 16776960
-0.32070437 -0.26190957 1.0133382 16776960
-0.31269246 -0.25705642 1.0094111 16776960
-0.31569147 -0.25697905 1.0094111 16776960
-0.31869048 -0.25690168 1.0094111 16776960
-0.3127507 -0.25931326 1.0113868 16776960
-0.3157497 -0.25923586 1.0113868 16776960
-0.31874871 -0.25915849 1.0113868 16776960
-0.31280893 -0.26157007 1.0133625 16776960
-0.31580794 -0.2614927 1.0133625 16776960
-0.30289569 -0.25742877 1.0091218 16776960
-0.30586627 -0.25700966 1.0091218 16776960
-0.30883685 -0.25659052 1.0091218 16776960
-0.3032524 -0.25995708 1.0106968 16776960
-0.30622301 -0.25953797 1.0106968 16776960
-0.30919358 -0.25911885 1.0106968 16776960
-0.30360913 -0.26248541 1.0122716 16776960
-0.30657971 -0.2620663 1.0122716 16776960
-0.29650423 -0.25876606 1.0088146 16776960
-0.29928097 -0.25763023 1.0088506 16776960
-0.30210084 -0.25660199 1.0086963 16776960
-0.29746738 -0.26117074 1.0103288 16776960
-0.30023646 -0.26001579 1.0103986 16776960
-0.30304864 -0.25896838 1.0102782 16776960
-0.29844496 -0.26361144 1.0117792 16776960
-0.30120638 -0.26243728 1.011883 16776960
-0.40936789 -0.2433852 1.0161961 16776960
-0.41028464 -0.2405287 1.0161961 16776960
-0.41120142 -0.23767221 1.0161961 16776960
-0.41140801 -0.24403995 1.0182959 16776960
-0.41232476 -0.24118346 1.0182959 16776960
-0.41324154 -0.23832697 1.0182959 16776960
-0.41344813 -0.24469471 1.0203958 16776960
-0.41436487 -0.24183822 1.0203958 16776960
-0.40369079 -0.24565269 1.0121628 16776960
-0.40575466 -0.24347544 1.0121628 16776960
-0.40781853 -0.24129818 1.0121628 16776960
-0.4049606 -0.24685639 1.0145997 16776960
-0.40702447 -0.24467914 1.0145997 16776960
-0.40908834 -0.24250188 1.0145997 16776960
-0.40623042 -0.24806008 1.0170367 16776960
-0.40829429 -0.24588282 1.0170367 16776960
-0.39684713 -0.25012487 1.0089045 16776960
-0.39833692 -0.24752076 1.0089287 16776960
-0.40009883 -0.24507579 1.0086862 16776960
-0.3985427 -0.25111645 1.0111723 16776960
-0.39997751 -0.24848019 1.0112504 16776960
-0.40168443 -0.24600308 1.0110618 16776960
-0.40029678 -0.25214225 1.0133828 16776960
-0.40167663 -0.24947385 1.0135146 16776960
0.32658499 -0.24206358 1.0113167 16776960
0.32967365 -0.24237537 1.0106568 16776960
0.33250958 -0.24335732 1.0105891 16776960
0.32729667 -0.24017638 1.0135416 16776960
0.33036727 -0.24053609 1.0129242 16776960
0.33318511 -0.24156597 1.0128988 16776960
0.32808638 -0.23808233 1.0155839 16776960
0.33113888 -0.23848999 1.0150088 16776960
0.33291915 -0.24342868 1.0114573 16776960
0.33557513 -0.2448359 1.0116124 16776960
0.33818391 -0.24634726 1.0118631 16776960
0.33372387 -0.24165262 1.0137374 16776960
0.33643702 -0.24293366 1.0137768 16776960
0.33910298 -0.24431883 1.0139117 16776960
0.33466783 -0.23956931 1.0157357 16776960
0.33743814 -0.24072415 1.0156593 16776960
0.34213981 -0.24517685 1.014235 16776960
0.34466949 -0.24685538 1.0137765 16776960
0.34743577 -0.24827461 1.0129722 16776960
0.34369209 -0.24347597 1.0161778 16776960
0.34586117 -0.24554962 1.0162462 16776960
0.34826687 -0.24736395 1.0159689 16776960
0.34536079 -0.24164756 1.0179504 16776960
0.34716925 -0.24411632 1.0185457 16776960
0.34884247 -0.24815419 1.0166031 16776960
0.35110185 -0.25012782 1.0166031 16776960
0.35336122 -0.25210145 1.0166031 16776960
0.35038498 -0.24638838 1.0184746 16776960
0.35264435 -0.24836202 1.0184746 16776960
0.35490373 -0.25033563 1.0184746 16776960
0.35192746 -0.24462257 1.0203462 16776960
0.35418683 -0.2465962 1.0203462 16776960
-0.41032299 -0.23675342 1.0155152 16776960
-0.4108651 -0.23380141 1.0156487 16776960
-0.41149119 -0.23086748 1.0156559 16776960
-0.41265467 -0.23725495 1.017343 16776960
-0.41324687 -0.23431371 1.0174011 16776960
-0.41392305 -0.23139054 1.0173329 16776960
-0.41496703 -0.23775232 1.0191997 16776960
-0.4156093 -0.23482186 1.0191826 16776960
-0.40463096 -0.23497404 1.0097512 16776960
-0.4044143 -0.23198189 1.0097512 16776960
-0.4041976 -0.22898972 1.0097512 16776960
-0.40678394 -0.23481813 1.0118345 16776960
-0.40656725 -0.23182598 1.0118345 16776960
-0.40635058 -0.22883381 1.0118345 16776960
-0.40893692 -0.23466222 1.0139179 16776960
-0.40872023 -0.23167007 1.0139179 16776960
0.32607135 -0.2387445 1.0138216 16776960
0.32890749 -0.23972242 1.0138216 16776960
0.33174363 -0.24070035 1.0138216 16776960
0.32678905 -0.23666306 1.0158594 16776960
0.32962519 -0.23764098 1.0158594 16776960
0.33246133 -0.23861891 1.0158594 16776960
0.32750675 -0.23458162 1.0178971 16776960
0.33034289 -0.23555954 1.0178971 16776960
0.33340669 -0.23954223 1.0150627 16776960
0.33640364 -0.23992831 1.0152805 16776960
0.33940139 -0.24022019 1.0154417 16776960
0.33342129 -0.2377395 1.0174789 16776960
0.33642092 -0.23779617 1.0174985 16776960
0.33942133 -0.23775867 1.0174612 16776960
0.33342993 -0.2366731 1.0203388 16776960
0.33643225 -0.23640038 1.0201598 16776960
0.34126526 -0.23827463 1.0183091 16776960
0.34355062 -0.24021812 1.0183091 16776960
0.34583595 -0.2421616 1.0183091 16776960
0.34283718 -0.23642619 1.0200733 16776960
0.34512255 -0.23836967 1.0200733 16776960
0.34740791 -0.24031316 1.0200733 16776960
0.34440911 -0.23457775 1.0218375 16776960
0.34669447 -0.23652123 1.0218375 16776960
-0.41013971 -0.22802532 1.0163151 16776960
-0.41333762 -0.22612715 1.0128798 16776960
-0.41808 -0.22488721 1.0068203 16776960
-0.41220561 -0.2289058 1.0183717 16776960
-0.41505536 -0.22685924 1.0155281 16776960
-0.4194496 -0.22547092 1.0100601 16776960
-0.41453367 -0.22989799 1.0199828 16776960
-0.41703528 -0.22770305 1.0177307 16776960
-0.40436667 -0.2284072 1.0100131 16776960
-0.40539014 -0.22558719 1.0100131 16776960
-0.40641361 -0.22276717 1.0100131 16776960
-0.4066031 -0.22921889 1.0118406 16776960
-0.40762657 -0.22639886 1.0118406 16776960
-0.40865004 -0.22357884 1.0118406 16776960
-0.40883952 -0.23003055 1.0136679 16776960
-0.409863 -0.22721054 1.0136679 16776960
-0.49007577 -0.21279989 1.0148171 16776960
-0.49233675 -0.21082813 1.0148171 16776960
-0.49459773 -0.20885634 1.0148171 16776960
-0.49137253 -0.21428686 1.017077 16776960
-0.49363351 -0.21231508 1.017077 16776960
-0.49589449 -0.21034332 1.017077 16776960
-0.49266928 -0.21577384 1.0193369 16776960
-0.49493027 -0.21380205 1.0193369 16776960
-0.48874083 -0.21061538 1.0112588 16776960
-0.48648778 -0.21259622 1.0112588 16776960
-0.48423472 -0.21457706 1.0112588 16776960
-0.48987412 -0.21190441 1.0137193 16776960
-0.48762107 -0.21388525 1.0137193 16776960
-0.48536801 -0.21586609 1.0137193 16776960
-0.49100742 -0.21319343 1.0161798 16776960
-0.48875436 -0.21517429 1.0161798 16776960
-0.51467544 -0.20044887 1.0169879 16776960
-0.51196009 -0.20172444 1.0169879 16776960
-0.5092448 -0.20300001 1.0169879 16776960
-0.51548809 -0.20217879 1.0193003 16776960
-0.51277274 -0.20345436 1.0193003 16776960
-0.51005745 -0.20472993 1.0193003 16776960
-0.51630074 -0.20390871 1.0216126 16776960
-0.51358545 -0.20518428 1.0216126 16776960
-0.50570488 -0.20190004 1.013501 16776960
-0.5029788 -0.20315234 1.013501 16776960
-0.50025266 -0.20440465 1.013501 16776960
-0.50643891 -0.20349786 1.0159317 16776960
-0.50371277 -0.20475017 1.0159317 16776960
-0.50098664 -0.20600247 1.0159317 16776960
-0.50717288 -0.20509568 1.0183624 16776960
-0.50444674 -0.20634799 1.0183624 16776960
-0.49650705 -0.20557477 1.0120796 16776960
-0.49402037 -0.20725299 1.0120796 16776960
-0.4915337 -0.20893122 1.0120796 16776960
-0.49754098 -0.20710677 1.0144426 16776960
-0.4950543 -0.208785 1.0144426 16776960
-0.49256763 -0.21046323 1.0144426 16776960
-0.49857494 -0.20863879 1.0168056 16776960
-0.49608827 -0.21031702 1.0168056 16776960
-0.4720704 -0.20333147 1.0099919 16776960
-0.47320881 -0.19796796 1.0101949 16776960
-0.47062069 -0.19631092 1.0101653 16776960
-0.46642032 -0.20895109 1.0126423 16776960
-0.46975768 -0.20140049 1.0129825 16776960
-0.46936849 -0.19755638 1.0130901 16776960
-0.45800731 -0.21731876 1.0151203 16776960
-0.46354359 -0.20758109 1.0155977 16776960
-0.46696556 -0.19941272 1.0123756 16776960
-0.46980813 -0.20037177 1.0123756 16776960
-0.47265071 -0.20133081 1.0123756 16776960
-0.46611318 -0.20193917 1.0137506 16776960
-0.46895576 -0.20289822 1.0137506 16776960
-0.47179833 -0.20385726 1.0137506 16776960
-0.46526077 -0.20446563 1.0151255 16776960
-0.46810335 -0.20542467 1.0151255 16776960
-0.53296924 -0.19068852 1.0167716 16776960
-0.53018832 -0.19181395 1.0167716 16776960
-0.52740741 -0.19293936 1.0167716 16776960
-0.53360391 -0.19225687 1.019249 16776960
-0.53082305 -0.19338229 1.019249 16776960
-0.52804214 -0.19450772 1.019249 16776960
-0.53423864 -0.19382523 1.0217264 16776960
-0.53145772 -0.19495064 1.0217264 16776960
-0.52489293 -0.19206142 1.0138307 16776960
-0.52220726 -0.19339824 1.0138307 16776960
-0.51952153 -0.19473507 1.0138307 16776960
-0.52562416 -0.19353044 1.0163422 16776960
-0.52293843 -0.19486725 1.0163422 16776960
-0.52025276 -0.19620408 1.0163422 16776960
-0.52635533 -0.19499946 1.0188535 16776960
-0.52366966 -0.19633627 1.0188535 16776960
-0.51604575 -0.19449143 1.0118029 16776960
-0.51350302 -0.19608347 1.0118029 16776960
-0.51096034 -0.19767553 1.0118029 16776960
-0.51707065 -0.19612831 1.0140986 16776960
-0.51452792 -0.19772035 1.0140986 16776960
-0.51198518 -0.19931239 1.0140986 16776960
-0.51809549 -0.19776519 1.0163944 16776960
-0.51555282 -0.19935723 1.0163944 16776960
-0.5046944 -0.19776925 1.0095152 16776960
-0.50743133 -0.19654068 1.0095152 16776960
-0.51016819 -0.1953121 1.0095152 16776960
-0.50554591 -0.19966622 1.0116777 16776960
-0.50828284 -0.19843765 1.0116777 16776960
-0.51101971 -0.19720906 1.0116777 16776960
-0.50639749 -0.20156318 1.0138402 16776960
-0.50913435 -0.20033461 1.0138402 16776960
-0.47207662 -0.19870685 1.0082124 16776960
-0.47242525 -0.19481306 1.009115 16776960
-0.46999398 -0.19284877 1.0087992 16776960
-0.47150511 -0.19910352 1.0111506 16776960
-0.46978378 -0.19664645 1.0111458 16776960
-0.46528253 -0.19611888 1.0099227 16776960
-0.46927115 -0.20065406 1.01336 16776960
-0.46547985 -0.1996337 1.012448 16776960
-0.47134554 -0.19617479 1.0104784 16776960
-0.46809769 -0.19477724 1.0098046 16776960
-0.46205974 -0.19531624 1.0079079 16776960
-0.46801162 -0.19848877 1.0122057 16776960
-0.46266711 -0.19854648 1.010613 16776960
-0.4545325 -0.20054071 1.0077974 16776960
-0.4630118 -0.20195904 1.0132028 16776960
-0.45557064 -0.20347199 1.0106912 16776960
-0.52838141 -0.18660536 1.0097696 16776960
-0.52560979 -0.18775345 1.0097696 16776960
-0.52283818 -0.18890154 1.0097696 16776960
-0.52908981 -0.18831559 1.0121304 16776960
-0.52631819 -0.18946368 1.0121304 16776960
-0.52354658 -0.19061176 1.0121304 16776960
-0.52979827 -0.19002582 1.0144911 16776960
-0.52702659 -0.1911739 1.0144911 16776960
-0.11544667 -0.35076097 1.0261918 16776960
-0.1178718 -0.34899494 1.0261918 16776960
-0.12029692 -0.34722894 1.0261918 16776960
-0.1166488 -0.35241175 1.0283895 16776960
-0.11907392 -0.35064575 1.0283895 16776960
-0.12149905 -0.34887972 1.0283895 16776960
-0.11785092 -0.35406253 1.0305872 16776960
-0.12027605 -0.35229653 1.0305872 16776960
-0.12953463 -0.34042457 1.0260897 16776960
-0.13211671 -0.3388972 1.0260897 16776960
-0.13469878 -0.3373698 1.0260897 16776960
-0.13060652 -0.34223661 1.0282269 16776960
-0.13318859 -0.34070924 1.0282269 16776960
-0.13577066 -0.33918184 1.0282269 16776960
-0.1316784 -0.34404865 1.030364 16776960
-0.13426048 -0.34252128 1.030364 16776960
-0.12179815 -0.34413162 1.0246186 16776960
-0.12418444 -0.3423132 1.0246508 16776960
-0.12658244 -0.34051049 1.0246632 16776960
-0.12304768 -0.34580821 1.0267704 16776960
-0.12546702 -0.34403417 1.026747 16776960
-0.12789808 -0.3422758 1.026704 16776960
-0.1242855 -0.34746912 1.0289418 16776960
-0.12673789 -0.34573939 1.0288628 16776960
-0.11486712 -0.34560636 1.021243 16776960
-0.11726692 -0.34380609 1.021243 16776960
-0.11966671 -0.34200582 1.021243 16776960
-0.11608104 -0.34722453 1.0234584 16776960
-0.11848085 -0.34542426 1.0234584 16776960
-0.12088064 -0.343624 1.0234584 16776960
-0.11729497 -0.34884274 1.0256737 16776960
-0.11969477 -0.34704247 1.0256737 16776960
-0.15922716 -0.33093783 1.0267302 16776960
-0.16186917 -0.32951665 1.0267302 16776960
-0.16451117 -0.32809544 1.0267302 16776960
-0.16030118 -0.33293444 1.0286949 16776960
-0.16294318 -0.33151323 1.0286949 16776960
-0.16558519 -0.33009204 1.0286949 16776960
-0.16137518 -0.33493102 1.0306596 16776960
-0.16401719 -0.3335098 1.0306596 16776960
-0.15232104 -0.33309507 1.0257114 16776960
-0.1549897 -0.33172458 1.0257114 16776960
-0.15765837 -0.33035409 1.0257114 16776960
-0.15337427 -0.33514598 1.0276309 16776960
-0.15604293 -0.33377549 1.0276309 16776960
-0.1587116 -0.332405 1.0276309 16776960
-0.15442751 -0.33719689 1.0295504 16776960
-0.15709618 -0.3358264 1.0295504 16776960
-0.14439167 -0.33195168 1.0225769 16776960
-0.14668138 -0.33389002 1.0225769 16776960
-0.14897111 -0.33582839 1.0225769 16776960
-0.14302984 -0.33356038 1.0247117 16776960
-0.14531955 -0.33549872 1.0247117 16776960
-0.14760926 -0.33743706 1.0247117 16776960
-0.14166801 -0.33516905 1.0268466 16776960
-0.14395772 -0.33710742 1.0268466 16776960
-0.13653974 -0.334811 1.0232919 16776960
-0.1336855 -0.33573475 1.0232919 16776960
-0.13083126 -0.33665848 1.0232919 16776960
-0.13717562 -0.33677581 1.025468 16776960
-0.13432138 -0.33769953 1.025468 16776960
-0.13146713 -0.33862329 1.025468 16776960
-0.1378115 -0.33874062 1.027644 16776960
-0.13495725 -0.33966434 1.027644 16776960
-0.12398192 -0.33670184 1.0206816 16776960
-0.12657088 -0.33518615 1.0206816 16776960
-0.12915985 -0.3336705 1.0206816 16776960
-0.12512821 -0.33865985 1.0226443 16776960
-0.12771718 -0.3371442 1.0226443 16776960
-0.13030615 -0.33562854 1.0226443 16776960
-0.12627451 -0.3406179 1.0246069 16776960
-0.12886348 -0.33910224 1.0246069 16776960
-0.1903328 -0.32030874 1.0266832 16776960
-0.19304715 -0.31903088 1.0266564 16776960
-0.19566217 -0.31754643 1.0268801 16776960
-0.19127405 -0.32226625 1.0287535 16776960
-0.1939977 -0.32100776 1.0287031 16776960
-0.19662203 -0.31954268 1.0289035 16776960
-0.19218966 -0.3241705 1.0308884 16776960
-0.19492263 -0.32293135 1.0308146 16776960
-0.18302894 -0.32179901 1.0267236 16776960
-0.18594898 -0.32111102 1.0267236 16776960
-0.18886903 -0.32042304 1.0267236 16776960
-0.18351348 -0.32385558 1.0288533 16776960
-0.18643352 -0.32316762 1.0288533 16776960
-0.18935357 -0.32247964 1.0288533 16776960
-0.18399802 -0.32591218 1.030983 16776960
-0.18691806 -0.32522419 1.030983 16776960
-0.17587452 -0.32178694 1.0245395 16776960
-0.1729929 -0.32262138 1.0245395 16776960
-0.17011128 -0.32345581 1.0245395 16776960
-0.17643708 -0.32372966 1.0267552 16776960
-0.17355546 -0.3245641 1.0267552 16776960
-0.17067386 -0.32539856 1.0267552 16776960
-0.17699966 -0.32567239 1.028971 16776960
-0.17411804 -0.32650685 1.028971 16776960
-0.16256624 -0.32459408 1.023178 16776960
-0.16531648 -0.32339564 1.023178 16776960
-0.16806671 -0.32219723 1.023178 16776960
-0.16348377 -0.32669967 1.0251079 16776960
-0.166234 -0.32550123 1.0251079 16776960
-0.16898423 -0.32430282 1.0251079 16776960
-0.16440129 -0.32880527 1.0270379 16776960
-0.16715153 -0.32760683 1.0270379 16776960
-0.15241723 -0.32664022 1.0205607 16776960
-0.1549831 -0.32508579 1.0205607 16776960
-0.15754896 -0.32353133 1.0205607 16776960
-0.15356499 -0.32853478 1.0225838 16776960
-0.15613085 -0.32698032 1.0225838 16776960
-0.15869673 -0.32542589 1.0225838 16776960
-0.15471274 -0.33042935 1.0246071 16776960
-0.15727861 -0.32887489 1.0246071 16776960
-0.14329657 -0.32931137 1.0189182 16776960
-0.14593473 -0.32788303 1.0189182 16776960
-0.14857289 -0.32645473 1.0189182 16776960
-0.14434505 -0.33124793 1.0209554 16776960
-0.14698321 -0.32981962 1.0209554 16776960
-0.14962137 -0.32839128 1.0209554 16776960
-0.14539352 -0.33318448 1.0229926 16776960
-0.14803168 -0.33175617 1.0229926 16776960
-0.22888096 -0.31113327 1.0275166 16776960
-0.23133701 -0.30941033 1.0275404 16776960
-0.2337133 -0.30757144 1.0276878 16776960
-0.23000927 -0.31277305 1.0297612 16776960
-0.23247355 -0.31106204 1.0297724 16776960
-0.23485804 -0.30923507 1.029907 16776960
-0.23108238 -0.31433257 1.0320914 16776960
-0.23355485 -0.31263348 1.0320897 16776960
-0.22133933 -0.31164905 1.0256175 16776960
-0.2241322 -0.31055367 1.0256175 16776960
-0.22692506 -0.30945826 1.0256175 16776960
-0.22212625 -0.31365541 1.0277045 16776960
-0.22491911 -0.31255999 1.0277045 16776960
-0.22771198 -0.31146458 1.0277045 16776960
-0.22291316 -0.31566173 1.0297914 16776960
-0.22570603 -0.31456634 1.0297914 16776960
-0.21665964 -0.31140432 1.0236896 16776960
-0.21368811 -0.31181666 1.0236896 16776960
-0.21071658 -0.31222901 1.0236896 16776960
-0.21692768 -0.31333601 1.0259693 16776960
-0.21395615 -0.31374836 1.0259693 16776960
-0.21098462 -0.3141607 1.0259693 16776960
-0.21719573 -0.31526771 1.0282489 16776960
-0.2142242 -0.31568006 1.0282489 16776960
-0.20640528 -0.3107526 1.0240397 16776960
-0.20348464 -0.31143808 1.0240397 16776960
-0.200564 -0.31212354 1.0240397 16776960
-0.20686498 -0.31271133 1.026265 16776960
-0.20394434 -0.31339678 1.026265 16776960
-0.2010237 -0.31408226 1.026265 16776960
-0.20732468 -0.31467006 1.0284904 16776960
-0.20440404 -0.31535551 1.0284904 16776960
-0.19280824 -0.31523681 1.0230781 16776960
-0.19538444 -0.31369954 1.0230781 16776960
-0.19796064 -0.31216228 1.0230781 16776960
-0.19382758 -0.31694505 1.0253237 16776960
-0.19640377 -0.31540778 1.0253237 16776960
-0.19897997 -0.31387049 1.0253237 16776960
-0.19484691 -0.31865326 1.0275694 16776960
-0.1974231 -0.31711599 1.0275694 16776960
-0.18312964 -0.31642699 1.0212977 16776960
-0.18600537 -0.31557202 1.0213253 16776960
-0.1888883 -0.31474215 1.0213279 16776960
-0.18369204 -0.31838712 1.0234988 16776960
-0.18657243 -0.31754839 1.0235102 16776960
-0.18946004 -0.31673476 1.0234964 16776960
-0.18427171 -0.32040736 1.0256398 16776960
-0.18715677 -0.31958491 1.0256348 16776960
-0.17833491 -0.31596878 1.0193326 16776960
-0.17544657 -0.31677964 1.0193326 16776960
-0.17255823 -0.3175905 1.0193326 16776960
-0.17887948 -0.31790856 1.0215554 16776960
-0.17599115 -0.31871942 1.0215554 16776960
-0.17310281 -0.31953028 1.0215554 16776960
-0.17942405 -0.3198483 1.0237782 16776960
-0.17653571 -0.32065919 1.0237782 16776960
-0.16214956 -0.31834069 1.0186524 16776960
-0.16514207 -0.31855255 1.0186524 16776960
-0.16813459 -0.31876439 1.0186524 16776960
-0.16199303 -0.32055181 1.0206739 16776960
-0.16498554 -0.32076368 1.0206739 16776960
-0.16797803 -0.32097554 1.0206739 16776960
-0.16183648 -0.32276294 1.0226954 16776960
-0.16482899 -0.3229748 1.0226954 16776960
-0.24447675 -0.29946181 1.0267698 16776960
-0.2420136 -0.30117437 1.0267698 16776960
-0.23955044 -0.30288693 1.0267698 16776960
-0.24555032 -0.3010059 1.0291071 16776960
-0.24308717 -0.30271846 1.0291071 16776960
-0.24062401 -0.30443105 1.0291071 16776960
-0.24662389 -0.30255002 1.0314444 16776960
-0.24416074 -0.30426258 1.0314444 16776960
-0.23179674 -0.30453143 1.0238472 16776960
-0.23440093 -0.30304208 1.0238472 16776960
-0.23700513 -0.30155274 1.0238472 16776960
-0.23277569 -0.30624318 1.0261081 16776960
-0.23537989 -0.30475381 1.0261081 16776960
-0.23798408 -0.30326447 1.0261081 16776960
-0.23375465 -0.30795491 1.0283691 16776960
-0.23635884 -0.30646557 1.0283691 16776960
-0.22323392 -0.30568901 1.0207714 16776960
-0.22567165 -0.30394045 1.0207714 16776960
-0.22810937 -0.30219188 1.0207714 16776960
-0.22452128 -0.30748379 1.0228015 16776960
-0.22695902 -0.3057352 1.0228015 16776960
-0.22939675 -0.30398664 1.0228015 16776960
-0.22580865 -0.30927855 1.0248317 16776960
-0.22824638 -0.30752999 1.0248317 16776960
-0.21221454 -0.30657184 1.0193057 16776960
-0.21519981 -0.30627492 1.0193057 16776960
-0.21818508 -0.305978 1.0193057 16776960
-0.21244356 -0.30887449 1.021215 16776960
-0.21542884 -0.30857754 1.021215 16776960
-0.21841411 -0.30828062 1.021215 16776960
-0.21267259 -0.3111771 1.0231242 16776960
-0.21565786 -0.31088018 1.0231242 16776960
-0.20777985 -0.30694973 1.019124 16776960
-0.20478055 -0.30688465 1.019124 16776960
-0.20178126 -0.30681953 1.019124 16776960
-0.20773509 -0.30901116 1.0213031 16776960
-0.2047358 -0.30894604 1.0213031 16776960
-0.20173651 -0.30888093 1.0213031 16776960
-0.20769034 -0.31107259 1.0234822 16776960
-0.20469105 -0.31100747 1.0234822 16776960
-0.20098409 -0.30647513 1.0184884 16776960
-0.19813488 -0.30741712 1.0185567 16776960
-0.19535534 -0.30855379 1.0184319 16776960
-0.20168905 -0.30844489 1.0206393 16776960
-0.19882755 -0.30935258 1.0207418 16776960
-0.19603573 -0.31045491 1.020651 16776960
-0.20238551 -0.31039092 1.0228139 16776960
-0.19951174 -0.31126428 1.0229504 16776960
-0.38092741 -0.29227924 1.0261768 16776960
-0.38342357 -0.29061514 1.0261768 16776960
-0.38591969 -0.28895101 1.0261768 16776960
-0.38212246 -0.29407179 1.0282645 16776960
-0.38461861 -0.29240769 1.0282645 16776960
-0.38711473 -0.29074356 1.0282645 16776960
-0.3833175 -0.29586434 1.0303522 16776960
-0.38581365 -0.29420024 1.0303522 16776960
-0.37666157 -0.29334342 1.0231786 16776960
-0.37379679 -0.29423398 1.0231786 16776960
-0.37093201 -0.29512456 1.0231786 16776960
-0.37696898 -0.29433239 1.0259942 16776960
-0.37410423 -0.29522294 1.0259942 16776960
-0.37123945 -0.29611352 1.0259942 16776960
-0.37727642 -0.29532132 1.0288098 16776960
-0.37441164 -0.2962119 1.0288098 16776960
-0.35167897 -0.29265326 1.0262747 16776960
-0.35466266 -0.29234108 1.0262747 16776960
-0.35764638 -0.29202893 1.0262747 16776960
-0.35190922 -0.29485416 1.0283002 16776960
-0.35489294 -0.29454201 1.0283002 16776960
-0.35787666 -0.29422984 1.0283002 16776960
-0.35213947 -0.2970551 1.0303258 16776960
-0.35512319 -0.29674295 1.0303258 16776960
-0.35061538 -0.29271877 1.0254309 16776960
-0.34781498 -0.29161602 1.0252258 16776960
-0.3453626 -0.28980267 1.0256932 16776960
-0.34964427 -0.29470158 1.0274916 16776960
-0.346993 -0.29329434 1.0275747 16776960
-0.34468976 -0.2911765 1.0283302 16776960
-0.34877223 -0.29648215 1.0297437 16776960
-0.34627008 -0.29477039 1.0301149 16776960
-0.26177421 -0.29167071 1.026387 16776960
-0.26458102 -0.29061159 1.026387 16776960
-0.26738784 -0.28955245 1.026387 16776960
-0.26249924 -0.29359218 1.0285738 16776960
-0.26530606 -0.29253304 1.0285738 16776960
-0.2681129 -0.29147393 1.0285738 16776960
-0.2632243 -0.29551363 1.0307606 16776960
-0.26603112 -0.29445451 1.0307606 16776960
-0.25192642 -0.29337355 1.0247546 16776960
-0.25476715 -0.29240903 1.0247546 16776960
-0.25760785 -0.29144451 1.0247546 16776960
-0.25260356 -0.2953679 1.0268911 16776960
-0.25544429 -0.29440337 1.0268911 16776960
-0.25828502 -0.29343882 1.0268911 16776960
-0.2532807 -0.29736221 1.0290275 16776960
-0.25612143 -0.29639769 1.0290275 16776960
-0.24356443 -0.29517853 1.0224203 16776960
-0.245995 -0.29341781 1.022504 16776960
-0.24850331 -0.29177135 1.0224572 16776960
-0.24468793 -0.29683006 1.0246602 16776960
-0.24716787 -0.29514191 1.0246612 16776960
-0.24972555 -0.29356799 1.0245315 16776960
-0.24584033 -0.29852405 1.0268518 16776960
-0.24836962 -0.29690847 1.0267698 16776960
-0.23974477 -0.29592001 1.019573 16776960
-0.2373423 -0.29772601 1.0194279 16776960
-0.23483869 -0.29937887 1.0194284 16776960
-0.24082498 -0.29755557 1.0218475 16776960
-0.23837715 -0.29929289 1.0217676 16776960
-0.23582818 -0.30087706 1.0218333 16776960
-0.24187149 -0.2991401 1.0241704 16776960
-0.2393783 -0.30080873 1.0241559 16776960
-0.39047706 -0.28374046 1.0265088 16776960
-0.39221084 -0.28128788 1.0266887 16776960
-0.39410186 -0.27895826 1.0266218 16776960
-0.39237192 -0.28522271 1.0283051 16776960
-0.3940886 -0.28275675 1.0285116 16776960
-0.39596251 -0.28041378 1.0284717 16776960
-0.39432096 -0.28674737 1.0300162 16776960
-0.39602056 -0.28426805 1.0302496 16776960
-0.38421592 -0.28618571 1.0228076 16776960
-0.38597167 -0.28375313 1.0228076 16776960
-0.38772738 -0.28132057 1.0228076 16776960
-0.38585308 -0.28736737 1.0250264 16776960
-0.38760883 -0.28493479 1.0250264 16776960
-0.38936457 -0.28250223 1.0250264 16776960
-0.38749027 -0.28854901 1.0272453 16776960
-0.38924602 -0.28611645 1.0272453 16776960
-0.36239883 -0.28807804 1.0195633 16776960
-0.359534 -0.28718767 1.0195633 16776960
-0.35666919 -0.28629726 1.0195633 16776960
-0.36184761 -0.28985164 1.0219193 16776960
-0.35898277 -0.28896126 1.0219193 16776960
-0.35611793 -0.28807089 1.0219193 16776960
-0.36129636 -0.29162523 1.0242752 16776960
-0.35843155 -0.29073486 1.0242752 16776960
-0.35301071 -0.2861104 1.0211852 16776960
-0.35587156 -0.28702998 1.0209937 16776960
-0.35871688 -0.28800952 1.0207338 16776960
-0.35245565 -0.28825477 1.0232085 16776960
-0.35534918 -0.28904799 1.0231612 16776960
-0.35822722 -0.28990117 1.0230455 16776960
-0.35185573 -0.29057232 1.0250342 16776960
-0.35478199 -0.29123917 1.0251311 16776960
-0.34740219 -0.28652602 1.0218904 16776960
-0.3445805 -0.28550714 1.0218904 16776960
-0.34175882 -0.28448826 1.0218904 16776960
-0.34678409 -0.28823781 1.0242753 16776960
-0.3439624 -0.28721893 1.0242753 16776960
-0.34114072 -0.28620008 1.0242753 16776960
-0.34616598 -0.28994963 1.0266602 16776960
-0.3433443 -0.28893074 1.0266602 16776960
-0.33701307 -0.28434974 1.0230423 16776960
-0.33480576 -0.28231806 1.0230423 16776960
-0.33259848 -0.28028634 1.0230423 16776960
-0.33598056 -0.2854715 1.0256261 16776960
-0.33377326 -0.28343979 1.0256261 16776960
-0.33156595 -0.2814081 1.0256261 16776960
-0.33494806 -0.28659326 1.0282097 16776960
-0.33274075 -0.28456154 1.0282097 16776960
-0.32236314 -0.28144291 1.0253241 16776960
-0.32531565 -0.2809113 1.0253241 16776960
-0.32826817 -0.28037965 1.0253241 16776960
-0.32281426 -0.28394818 1.0269116 16776960
-0.32576677 -0.28341657 1.0269116 16776960
-0.32871929 -0.28288493 1.0269116 16776960
-0.32326534 -0.28645349 1.028499 16776960
-0.32621786 -0.28592184 1.028499 16776960
-0.31295261 -0.28196761 1.0256113 16776960
-0.31595227 -0.28192213 1.0256113 16776960
-0.31895193 -0.28187665 1.0256113 16776960
-0.31299445 -0.28472847 1.0267842 16776960
-0.31599411 -0.28468299 1.0267842 16776960
-0.31899378 -0.28463754 1.0267842 16776960
-0.31303632 -0.28748935 1.0279572 16776960
-0.31603596 -0.28744388 1.0279572 16776960
-0.30369219 -0.28211528 1.0253861 16776960
-0.30665374 -0.28259391 1.0253861 16776960
-0.30961531 -0.28307253 1.0253861 16776960
-0.30328852 -0.28461292 1.0269982 16776960
-0.3062501 -0.28509155 1.0269982 16776960
-0.30921167 -0.28557017 1.0269982 16776960
-0.30288488 -0.28711057 1.0286102 16776960
-0.30584645 -0.28758919 1.0286102 16776960
-0.29327276 -0.28225562 1.0250169 16776960
-0.29624432 -0.28266782 1.0250169 16776960
-0.29921585 -0.28308001 1.0250169 16776960
-0.29295662 -0.28453475 1.0269419 16776960
-0.29592818 -0.28494695 1.0269419 16776960
-0.29889971 -0.28535914 1.0269419 16776960
-0.29264048 -0.28681388 1.0288669 16776960
-0.29561204 -0.28722608 1.0288669 16776960
-0.28363732 -0.28112903 1.025758 16776960
-0.28654554 -0.28186539 1.025758 16776960
-0.28945377 -0.28260171 1.025758 16776960
-0.28308257 -0.28332007 1.0277308 16776960
-0.2859908 -0.28405643 1.0277308 16776960
-0.28889903 -0.28479275 1.0277308 16776960
-0.2825278 -0.28551114 1.0297035 16776960
-0.28543603 -0.28624746 1.0297035 16776960
-0.27214769 -0.28391385 1.0241201 16776960
-0.27474061 -0.28240493 1.0241201 16776960
-0.2773335 -0.28089601 1.0241201 16776960
-0.27315637 -0.28564715 1.0263512 16776960
-0.2757493 -0.28413823 1.0263512 16776960
-0.27834219 -0.28262931 1.0263512 16776960
-0.27416506 -0.28738046 1.0285825 16776960
-0.27675796 -0.28587154 1.0285825 16776960
-0.26333717 -0.28645158 1.0215603 16776960
-0.26590347 -0.28489783 1.0215603 16776960
-0.26846978 -0.28334412 1.0215603 16776960
-0.26440105 -0.28820878 1.0237467 16776960
-0.26696736 -0.28665504 1.0237467 16776960
-0.26953366 -0.28510132 1.0237467 16776960
-0.26546493 -0.28996599 1.0259331 16776960
-0.26803124 -0.28841224 1.0259331 16776960
-0.25321409 -0.28737691 1.0194268 16776960
-0.2561039 -0.28657138 1.0194268 16776960
-0.25899372 -0.28576583 1.0194268 16776960
-0.25377357 -0.28938401 1.0215852 16776960
-0.25666338 -0.28857845 1.0215852 16776960
-0.25955322 -0.28777289 1.0215852 16776960
-0.25433305 -0.2913911 1.0237436 16776960
-0.25722286 -0.29058555 1.0237436 16776960
-0.24669285 -0.28803703 1.0185739 16776960
-0.24946049 -0.28687924 1.0185579 16776960
-0.25235859 -0.28602874 1.0182073 16776960
-0.24753363 -0.29001734 1.020665 16776960
-0.25030935 -0.28887862 1.0206283 16776960
-0.25321555 -0.28804722 1.0202569 16776960
-0.24837172 -0.29199132 1.022763 16776960
-0.25115556 -0.29087168 1.0227056 16776960
-0.4102824 -0.27220383 1.0267037 16776960
-0.41247869 -0.27016023 1.0267037 16776960
-0.41467497 -0.26811659 1.0267037 16776960
-0.41185123 -0.27388984 1.0286263 16776960
-0.41404748 -0.2718462 1.0286263 16776960
-0.41624376 -0.2698026 1.0286263 16776960
-0.41342002 -0.27557585 1.0305488 16776960
-0.4156163 -0.27353221 1.0305488 16776960
-0.4023267 -0.2730315 1.0241628 16776960
-0.40523037 -0.27227744 1.0241628 16776960
-0.40813407 -0.27152339 1.0241628 16776960
-0.40287247 -0.27513325 1.0262327 16776960
-0.40577617 -0.27437919 1.0262327 16776960
-0.40867987 -0.27362514 1.0262327 16776960
-0.40341827 -0.27723497 1.0283028 16776960
-0.40632197 -0.27648094 1.0283028 16776960
-0.39293408 -0.2750763 1.0221603 16776960
-0.39560774 -0.27371553 1.0221603 16776960
-0.39828137 -0.27235478 1.0221603 16776960
-0.39393142 -0.27703583 1.0242013 16776960
-0.39660504 -0.27567509 1.0242013 16776960
-0.3992787 -0.27431434 1.0242013 16776960
-0.39492872 -0.27899539 1.0262421 16776960
-0.39760235 -0.27763465 1.0262421 16776960
-0.38557529 -0.2787506 1.0203524 16776960
-0.38709942 -0.27616519 1.0204458 16776960
-0.38877505 -0.27367502 1.0203438 16776960
-0.38739297 -0.27989316 1.02245 16776960
-0.38899186 -0.27735475 1.022447 16776960
-0.39074227 -0.27491158 1.0222485 16776960
-0.38926741 -0.28107145 1.0244744 16776960
-0.39094111 -0.27858004 1.0243748 16776960
-0.32393131 -0.27289921 1.0209507 16776960
-0.32589412 -0.275168 1.0209507 16776960
-0.32785693 -0.27743676 1.0209507 16776960
-0.32193285 -0.27462816 1.0223709 16776960
-0.32389566 -0.27689695 1.0223709 16776960
-0.32585847 -0.27916571 1.0223709 16776960
-0.31993437 -0.27635711 1.0237911 16776960
-0.32189721 -0.27862591 1.0237911 16776960
-0.31328765 -0.27456632 1.02242 16776960
-0.31620929 -0.27388516 1.02242 16776960
-0.31913093 -0.27320403 1.02242 16776960
-0.31393409 -0.2773391 1.0233655 16776960
-0.31685573 -0.27665797 1.0233655 16776960
-0.31977737 -0.27597681 1.0233655 16776960
-0.31458053 -0.28011188 1.0243108 16776960
-0.31750217 -0.27943075 1.0243108 16776960
-0.30357426 -0.27630976 1.0205932 16776960
-0.30619395 -0.27484781 1.0205932 16776960
-0.3088136 -0.27338585 1.0205932 16776960
-0.30477822 -0.27846715 1.022295 16776960
-0.3073979 -0.2770052 1.022295 16776960
-0.31001756 -0.27554321 1.022295 16776960
-0.3059822 -0.28062451 1.0239968 16776960
-0.30860186 -0.27916256 1.0239968 16776960
-0.29332253 -0.27647012 1.0201967 16776960
-0.29624981 -0.27712658 1.0201967 16776960
-0.29917711 -0.27778307 1.0201967 16776960
-0.29281512 -0.27873275 1.0221001 16776960
-0.29574242 -0.2793892 1.0221001 16776960
-0.29866973 -0.28004566 1.0221001 16776960
-0.2923077 -0.28099534 1.0240036 16776960
-0.29523501 -0.28165182 1.0240036 16776960
-0.28356048 -0.27676156 1.0208241 16776960
-0.28656042 -0.27674505 1.0208241 16776960
-0.28956038 -0.27672854 1.0208241 16776960
-0.28357264 -0.27897307 1.0228511 16776960
-0.28657261 -0.27895653 1.0228511 16776960
-0.28957257 -0.27894002 1.0228511 16776960
-0.28358483 -0.28118455 1.0248783 16776960
-0.28658476 -0.28116804 1.0248783 16776960
-0.27485538 -0.27769017 1.0199629 16776960
-0.27774826 -0.27689567 1.0199629 16776960
-0.28064114 -0.27610117 1.0199629 16776960
-0.2754316 -0.27978829 1.0220283 16776960
-0.27832448 -0.27899376 1.0220283 16776960
-0.28121737 -0.27819926 1.0220283 16776960
-0.27600783 -0.28188637 1.0240937 16776960
-0.27890071 -0.28109187 1.0240937 16776960
-0.41136524 -0.2667954 1.0239061 16776960
-0.41153082 -0.26379997 1.0239061 16776960
-0.41169643 -0.26080453 1.0239061 16776960
-0.41333356 -0.26690421 1.0261675 16776960
-0.41349915 -0.26390877 1.0261675 16776960
-0.41366476 -0.26091334 1.0261675 16776960
-0.41530189 -0.26701301 1.0284289 16776960
-0.41546747 -0.26401758 1.0284289 16776960
-0.40743232 -0.26677802 1.0198276 16776960
-0.4062086 -0.26403895 1.0198276 16776960
-0.40498492 -0.26129988 1.0198276 16776960
-0.40960211 -0.26580867 1.0216585 16776960
-0.40837839 -0.26306957 1.0216585 16776960
-0.40715468 -0.2603305 1.0216585 16776960
-0.41177189 -0.26483929 1.0234895 16776960
-0.41054818 -0.26210022 1.0234895 16776960
-0.32110503 -0.26675206 1.0181631 16776960
-0.32340795 -0.26867473 1.0181631 16776960
-0.32571086 -0.27059737 1.0181631 16776960
-0.31968462 -0.26845339 1.0201849 16776960
-0.32198754 -0.27037606 1.0201849 16776960
-0.32429045 -0.27229869 1.0201849 16776960
-0.31826425 -0.27015474 1.0222068 16776960
-0.32056716 -0.27207738 1.0222068 16776960
-0.31368652 -0.26768476 1.0188453 16776960
-0.3165586 -0.26681808 1.0188453 16776960
-0.31943068 -0.26595142 1.0188453 16776960
-0.31439734 -0.27004036 1.0205616 16776960
-0.31726941 -0.26917371 1.0205616 16776960
-0.32014152 -0.26830706 1.0205616 16776960
-0.31510815 -0.272396 1.022278 16776960
-0.31798023 -0.27152935 1.022278 16776960
-0.41025999 -0.2556043 1.0259837 16776960
-0.41148311 -0.25286496 1.0259837 16776960
-0.41270623 -0.25012562 1.0259837 16776960
-0.41204607 -0.25640181 1.0282583 16776960
-0.41326922 -0.25366247 1.0282583 16776960
-0.41449234 -0.25092313 1.0282583 16776960
-0.41383219 -0.25719932 1.030533 16776960
-0.4150553 -0.25445998 1.030533 16776960
-0.40763709 -0.25795212 1.0218827 16776960
-0.40696505 -0.25502837 1.0218827 16776960
-0.406293 -0.25210461 1.0218827 16776960
-0.40956086 -0.25750992 1.0241418 16776960
-0.40888885 -0.25458616 1.0241418 16776960
-0.4082168 -0.2516624 1.0241418 16776960
-0.41148466 -0.25706774 1.0264009 16776960
-0.41081265 -0.25414398 1.0264009 16776960
-0.42865959 -0.24092056 1.0277487 16776960
-0.43109113 -0.23916253 1.0278138 16776960
-0.43348449 -0.23734961 1.0279584 16776960
-0.4300046 -0.24285421 1.029609 16776960
-0.4324486 -0.24111408 1.0296482 16776960
-0.43485439 -0.23931907 1.0297668 16776960
-0.43129814 -0.24471384 1.0315764 16776960
-0.43375456 -0.24299163 1.0315896 16776960
-0.42163798 -0.24285883 1.0263433 16776960
-0.4241733 -0.24125503 1.0263433 16776960
-0.42670861 -0.23965125 1.0263433 16776960
-0.42291602 -0.24487922 1.0281557 16776960
-0.42545137 -0.24327542 1.0281557 16776960
-0.42798668 -0.24167162 1.0281557 16776960
-0.4241941 -0.24689959 1.029968 16776960
-0.42672941 -0.24529581 1.029968 16776960
0.34723797 -0.24251616 1.0179549 16776960
0.34851748 -0.24522963 1.0179549 16776960
0.34979695 -0.24794309 1.0179549 16776960
0.34946752 -0.24146485 1.0196649 16776960
0.35074699 -0.24417832 1.0196649 16776960
0.35202649 -0.2468918 1.0196649 16776960
0.35169703 -0.24041356 1.0213748 16776960
0.35297653 -0.24312703 1.0213748 16776960
0.35123369 -0.24522431 1.01961 16776960
0.35418254 -0.24467263 1.01961 16776960
0.35713136 -0.24412094 1.01961 16776960
0.35072592 -0.24251018 1.0207829 16776960
0.35367477 -0.2419585 1.0207829 16776960
0.35662359 -0.24140681 1.0207829 16776960
0.35021815 -0.23979606 1.0219558 16776960
0.353167 -0.23924437 1.0219558 16776960
-0.42991 -0.23735628 1.0263745 16776960
-0.43223828 -0.23546439 1.0263745 16776960
-0.43456653 -0.23357251 1.0263745 16776960
-0.431445 -0.23924534 1.028128 16776960
-0.43377328 -0.23735344 1.028128 16776960
-0.43610153 -0.23546156 1.028128 16776960
-0.43298 -0.24113439 1.0298817 16776960
-0.43530825 -0.23924249 1.0298817 16776960
-0.42158797 -0.23511724 1.0218012 16776960
-0.42392564 -0.23323479 1.0216323 16776960
-0.42641062 -0.23152429 1.0210437 16776960
-0.42330828 -0.23712553 1.023218 16776960
-0.42564321 -0.23523989 1.0230569 16776960
-0.42812544 -0.23352621 1.0224761 16776960
-0.42489243 -0.23897488 1.0250227 16776960
-0.42722464 -0.23708606 1.0248694 16776960
-0.416444 -0.23592137 1.01714 16776960
-0.41534114 -0.23233998 1.0213988 16776960
-0.41659525 -0.22960252 1.0209095 16776960
-0.42001861 -0.23720123 1.0163714 16776960
-0.41839281 -0.23343262 1.0216835 16776960
-0.41912401 -0.23050793 1.0222476 16776960
-0.42361325 -0.23848826 1.0155623 16776960
-0.42146453 -0.23453243 1.0219277 16776960
0.34423888 -0.23454745 1.0218043 16776960
0.34548122 -0.23181678 1.0218043 16776960
0.34672356 -0.2290861 1.0218043 16776960
0.34313157 -0.23404367 1.0245466 16776960
0.34437391 -0.23131301 1.0245466 16776960
0.34561625 -0.22858232 1.0245466 16776960
0.34202427 -0.23353989 1.0272889 16776960
0.34326661 -0.23080921 1.0272889 16776960
-0.50163054 -0.22245766 1.0267582 16776960
-0.50288814 -0.21973395 1.0267582 16776960
-0.50414568 -0.21701026 1.0267582 16776960
-0.50391078 -0.22351044 1.0283991 16776960
-0.50516832 -0.22078675 1.0283991 16776960
-0.50642592 -0.21806304 1.0283991 16776960
-0.50619096 -0.22456324 1.0300399 16776960
-0.50744855 -0.22183953 1.0300399 16776960
-0.49678662 -0.221154 1.0239036 16776960
-0.49820882 -0.21851254 1.0239036 16776960
-0.49963099 -0.21587105 1.0239036 16776960
-0.49907613 -0.22238667 1.0253998 16776960
-0.50049829 -0.2197452 1.0253998 16776960
-0.50192046 -0.21710372 1.0253998 16776960
-0.5013656 -0.22361934 1.0268961 16776960
-0.50278777 -0.22097786 1.0268961 16776960
-0.41820452 -0.22971867 1.0191576 16776960
-0.41984144 -0.22720461 1.0191576 16776960
-0.42147836 -0.22469056 1.0191576 16776960
-0.4204627 -0.23118898 1.0204762 16776960
-0.42209962 -0.22867493 1.0204762 16776960
-0.42373654 -0.22616087 1.0204762 16776960
-0.42272088 -0.23265931 1.0217949 16776960
-0.4243578 -0.23014525 1.0217949 16776960
-0.41576093 -0.22993815 1.0212111 16776960
-0.41898197 -0.22790492 1.0167599 16776960
-0.42455998 -0.22671561 1.0075606 16776960
-0.41839075 -0.23087974 1.0223457 16776960
-0.4210889 -0.2286593 1.0189476 16776960
-0.42614403 -0.22728276 1.0108017 16776960
-0.42104065 -0.23182853 1.0234396 16776960
-0.42321587 -0.22942086 1.021095 16776960
0.34132713 -0.22169244 1.0253438 16776960
0.33863994 -0.22009614 1.0263944 16776960
0.33631253 -0.21710028 1.029176 16776960
0.34075874 -0.22390352 1.0272903 16776960
0.33826891 -0.22153948 1.0292904 16776960
0.33613887 -0.21777587 1.0330217 16776960
0.34032413 -0.22559412 1.0298806 16776960
0.33803168 -0.22246234 1.0328304 16776960
0.34784731 -0.22617941 1.0267876 16776960
0.34738109 -0.22318619 1.0277194 16776960
0.34632787 -0.22037053 1.0272917 16776960
0.34502721 -0.22703235 1.0275521 16776960
0.34435236 -0.22410224 1.0280007 16776960
0.34309053 -0.22134967 1.0270897 16776960
0.34271666 -0.22773118 1.0294967 16776960
0.34183323 -0.22486417 1.0294621 16776960
0.35410148 -0.22223254 1.028311 16776960
0.35271126 -0.22489098 1.028311 16776960
0.35132107 -0.22754942 1.028311 16776960
0.35673404 -0.22360921 1.0287285 16776960
0.35534385 -0.22626765 1.0287285 16776960
0.35395363 -0.22892611 1.0287285 16776960
0.35936663 -0.2249859 1.029146 16776960
0.35797641 -0.22764434 1.029146 16776960
0.36127934 -0.22160609 1.0287751 16776960
0.3596417 -0.22411968 1.0287751 16776960
0.35800406 -0.22663328 1.0287751 16776960
0.36369476 -0.22317976 1.0296054 16776960
0.36205712 -0.22569335 1.0296054 16776960
0.36041948 -0.22820695 1.0296054 16776960
0.36611018 -0.22475342 1.0304356 16776960
0.36447254 -0.22726701 1.0304356 16776960
-0.50957555 -0.21113747 1.0268561 16776960
-0.51217467 -0.20963645 1.0267596 16776960
-0.51490355 -0.20834476 1.0264078 16776960
-0.51074427 -0.21302375 1.0288768 16776960
-0.51327163 -0.21140686 1.0289217 16776960
-0.51592869 -0.20999931 1.0287113 16776960
-0.51200348 -0.21505609 1.0307194 16776960
-0.51445907 -0.21332332 1.0309056 16776960
-0.50180024 -0.21546941 1.0248883 16776960
-0.50381166 -0.21324328 1.0248375 16776960
-0.50595474 -0.21113318 1.0245483 16776960
-0.50366998 -0.21711694 1.0265635 16776960
-0.50558037 -0.21480183 1.0266955 16776960
-0.50762254 -0.21260278 1.026589 16776960
-0.50556397 -0.21878587 1.0281947 16776960
-0.50737345 -0.2163818 1.0285095 16776960
-0.49489406 -0.21662953 1.0205947 16776960
-0.49665985 -0.21420427 1.0205947 16776960
-0.49842566 -0.21177898 1.0205947 16776960
-0.49674094 -0.21797422 1.0225391 16776960
-0.49850675 -0.21554895 1.0225391 16776960
-0.50027257 -0.21312368 1.0225391 16776960
-0.49858782 -0.21931891 1.0244836 16776960
-0.50035363 -0.21689363 1.0244836 16776960
0.34009835 -0.21492754 1.0223769 16776960
0.33735675 -0.21614553 1.0223769 16776960
0.33461511 -0.21736354 1.0223769 16776960
0.3410292 -0.21702281 1.0243117 16776960
0.33828759 -0.21824081 1.0243117 16776960
0.33554596 -0.2194588 1.0243117 16776960
0.34196007 -0.21911809 1.0262464 16776960
0.33921844 -0.22033608 1.0262464 16776960
0.34717694 -0.21465836 1.0243785 16776960
0.34427172 -0.21540648 1.0243785 16776960
0.3413665 -0.21615459 1.0243785 16776960
0.34786439 -0.21732794 1.025562 16776960
0.34495917 -0.21807605 1.025562 16776960
0.34205395 -0.21882416 1.025562 16776960
0.34855181 -0.21999753 1.0267456 16776960
0.34564659 -0.22074564 1.0267456 16776960
0.35309115 -0.21694665 1.0284209 16776960
0.35592863 -0.21792063 1.0284209 16776960
0.35876614 -0.2188946 1.0284209 16776960
0.35405803 -0.21412981 1.0287821 16776960
0.35689554 -0.21510379 1.0287821 16776960
0.35973302 -0.21607776 1.0287821 16776960
0.35502493 -0.21131296 1.0291435 16776960
0.35786241 -0.21228695 1.0291435 16776960
0.360598 -0.21510504 1.0290097 16776960
0.36187166 -0.21782127 1.0290097 16776960
0.36314529 -0.22053748 1.0290097 16776960
0.36329213 -0.21384178 1.0293916 16776960
0.36456576 -0.21655799 1.0293916 16776960
0.36583939 -0.21927422 1.0293916 16776960
0.36598623 -0.21257851 1.0297737 16776960
0.36725986 -0.21529473 1.0297737 16776960
-0.52876061 -0.20093666 1.0274806 16776960
-0.53136384 -0.19944488 1.0274394 16776960
-0.53405964 -0.19810899 1.0272368 16776960
-0.52977073 -0.20263779 1.0297358 16776960
-0.53236163 -0.20112526 1.029716 16776960
-0.53504509 -0.19976862 1.0295351 16776960
-0.53082359 -0.20441091 1.0319166 16776960
-0.5334022 -0.20287764 1.0319183 16776960
-0.52120507 -0.20320579 1.0245017 16776960
-0.52371353 -0.2015603 1.0245017 16776960
-0.52622199 -0.19991483 1.0245017 16776960
-0.52228677 -0.20485482 1.0267624 16776960
-0.52479523 -0.20320933 1.0267624 16776960
-0.5273037 -0.20156385 1.0267624 16776960
-0.52336854 -0.20650384 1.0290231 16776960
-0.525877 -0.20485836 1.0290231 16776960
-0.51651508 -0.20480086 1.0231618 16776960
-0.51380086 -0.20607875 1.0231618 16776960
-0.51108664 -0.20735666 1.0231618 16776960
-0.51727933 -0.20642421 1.0255661 16776960
-0.51456517 -0.2077021 1.0255661 16776960
-0.51185095 -0.20898001 1.0255661 16776960
-0.51804364 -0.20804755 1.0279703 16776960
-0.51532942 -0.20932545 1.0279703 16776960
-0.50386906 -0.20856585 1.0200891 16776960
-0.50645375 -0.20704289 1.0200891 16776960
-0.50903845 -0.20551993 1.0200891 16776960
-0.50486398 -0.21025442 1.0223604 16776960
-0.50744867 -0.20873146 1.0223604 16776960
-0.51003337 -0.20720848 1.0223604 16776960
-0.50585896 -0.21194297 1.0246317 16776960
-0.50844365 -0.21042001 1.0246317 16776960
-0.53500748 -0.19531196 1.0239271 16776960
-0.53222507 -0.19643366 1.0239271 16776960
-0.52944267 -0.19755535 1.0239271 16776960
-0.53568375 -0.19698951 1.0263206 16776960
-0.53290135 -0.19811121 1.0263206 16776960
-0.53011894 -0.19923289 1.0263206 16776960
-0.53636003 -0.19866705 1.0287139 16776960
-0.53357762 -0.19978875 1.0287139 16776960
-0.52797055 -0.19522502 1.0205405 16776960
-0.52533597 -0.19666015 1.0205603 16776960
-0.52280211 -0.19827649 1.0204202 16776960
-0.52884328 -0.19679506 1.0229437 16776960
-0.52622312 -0.19825619 1.0229405 16776960
-0.52370369 -0.19989853 1.0227776 16776960
-0.5297358 -0.19840077 1.0253154 16776960
-0.52713013 -0.19988787 1.0252893 16776960
-0.13031834 -0.35180345 1.036384 16776960
-0.13283244 -0.35016596 1.0364257 16776960
-0.13536321 -0.34855497 1.0364382 16776960
-0.13140367 -0.35352525 1.038588 16776960
-0.13393936 -0.35192204 1.0385919 16776960
-0.13649172 -0.35034528 1.0385665 16776960
-0.13248247 -0.35523671 1.0408036 16776960
-0.13503976 -0.35366774 1.0407695 16776960
-0.12202454 -0.35455999 1.03371 16776960
-0.12450323 -0.35286999 1.03371 16776960
-0.12698193 -0.35117999 1.03371 16776960
-0.12315478 -0.35621768 1.0359404 16776960
-0.12563348 -0.35452768 1.0359404 16776960
-0.12811217 -0.35283768 1.0359404 16776960
-0.12428502 -0.35787538 1.0381708 16776960
-0.12676372 -0.35618538 1.0381708 16776960
-0.11642017 -0.35421261 1.0298607 16776960
-0.11886496 -0.35247391 1.0298607 16776960
-0.12130975 -0.35073525 1.0298607 16776960
-0.11761604 -0.35589412 1.0320385 16776960
-0.12006082 -0.35415545 1.0320385 16776960
-0.12250561 -0.35241678 1.0320385 16776960
-0.1188119 -0.35757565 1.0342162 16776960
-0.12125669 -0.35583699 1.0342162 16776960
-0.16223651 -0.34296629 1.0360976 16776960
-0.16413757 -0.34064549 1.0360976 16776960
-0.16603862 -0.33832473 1.0360976 16776960
-0.16354406 -0.34403735 1.0385762 16776960
-0.1654451 -0.34171656 1.0385762 16776960
-0.16734615 -0.33939579 1.0385762 16776960
-0.16485159 -0.34510839 1.0410547 16776960
-0.16675264 -0.34278762 1.0410547 16776960
-0.15590592 -0.34125572 1.0341812 16776960
-0.15296982 -0.34187165 1.0341812 16776960
-0.15003374 -0.3424876 1.0341812 16776960
-0.15633419 -0.34329727 1.0363373 16776960
-0.1533981 -0.3439132 1.0363373 16776960
-0.15046202 -0.34452915 1.0363373 16776960
-0.15676247 -0.34533882 1.0384934 16776960
-0.15382639 -0.34595475 1.0384934 16776960
-0.14705382 -0.34252825 1.0335509 16776960
-0.14408639 -0.34296915 1.0335509 16776960
-0.14111897 -0.34341004 1.0335509 16776960
-0.14735997 -0.34458879 1.0357096 16776960
-0.14439255 -0.34502968 1.0357096 16776960
-0.14142512 -0.34547058 1.0357096 16776960
-0.14766613 -0.34664932 1.0378685 16776960
-0.14469869 -0.34709021 1.0378685 16776960
-0.13212527 -0.34514397 1.0328944 16776960
